ply
format ascii 1.0
element vertex 68
property float x
property float y
property float z
property uchar red
property uchar green
property uchar blue
end_header
0.0000 0.0000 0.0000 0 255 0
-nan -nan -nan 0 255 0
-0.6412 0.1854 1.2055 5 11 27
-0.6393 0.1575 1.2319 244 241 236
-0.7388 -0.0340 1.4456 192 198 191
-0.6183 0.1266 1.2782 224 214 210
-0.8149 -0.1914 1.7002 238 230 241
-0.7291 -0.0965 1.5291 193 178 179
-1.2205 -0.8010 2.6048 51 1 66
-0.5998 0.1166 1.2928 95 25 48
-0.5305 0.1454 1.2567 216 211 228
-0.5346 0.1347 1.2697 235 220 219
-0.4767 0.2824 1.1380 143 54 54
-0.4826 0.2517 1.1715 72 62 74
-0.4610 0.2584 1.1553 111 155 241
-0.4191 0.3152 1.0508 249 206 180
-0.4749 0.2332 1.2008 49 46 58
-0.4532 0.2775 1.1383 92 80 84
-0.4403 0.2931 1.1159 121 101 118
-0.3919 0.3861 1.0017 208 198 196
-0.4547 0.2458 1.1709 201 190 181
-0.4547 0.2458 1.1709 34 14 35
-0.4544 0.2236 1.2047 234 227 239
-0.5952 -0.1478 1.5827 64 50 69
-0.4381 0.2344 1.2013 232 227 227
-1.0691 -1.0250 2.9798 141 90 71
-0.5140 0.0021 1.4808 225 219 239
-0.4003 0.1925 1.1964 254 254 251
-0.8641 -0.6274 2.6236 150 155 129
-0.8066 -0.6007 2.6572 166 146 132
-0.2512 0.2226 0.9740 195 61 97
-0.2469 0.1297 1.1587 126 2 148
-0.2020 0.1878 0.9521 253 250 253
-0.2029 0.4149 0.9665 72 77 114
-0.3586 -0.2239 1.7834 137 6 53
-0.1820 0.2001 0.9379 208 198 187
-0.1605 0.2405 0.9934 208 199 194
-0.2525 -0.1165 1.6296 195 207 63
-0.2533 -0.1491 1.6503 232 218 222
-0.3241 -0.7505 2.1395 246 246 250
-0.3354 -0.5497 2.2493 210 199 188
-0.1806 0.1170 1.3248 166 160 155
-0.1994 -0.0489 1.5363 126 97 101
-0.1896 -0.0358 1.5205 129 84 72
-0.1235 0.2566 1.0786 212 200 201
-0.1269 0.2144 1.1006 217 201 203
-0.1827 -0.1417 1.6180 41 28 14
-0.1136 0.2245 1.0736 45 38 50
-0.1640 -0.2089 1.7505 48 35 49
-0.1351 0.0087 1.4588 195 179 171
-0.1480 -0.1482 1.6472 135 157 214
-0.1016 0.2637 1.0954 24 2 7
-0.0889 0.1077 1.2006 238 227 240
-0.1101 -0.0888 1.5610 219 211 207
-0.0574 0.2312 1.1820 251 247 249
-0.0202 0.1390 1.1560 155 136 128
0.0974 0.1349 1.2938 153 152 174
0.2051 0.1630 1.2458 233 191 144
0.2042 0.1536 1.2417 41 30 24
0.3901 0.1101 1.3192 136 114 108
0.3349 0.2752 1.0759 249 240 243
0.4563 0.1023 1.3280 48 22 40
1.1017 -0.8953 2.4865 237 226 235
0.5621 0.0325 1.1752 201 193 196
0.5746 0.0766 1.1932 48 43 45
0.5746 0.0766 1.1932 52 48 83
0.4982 0.3580 1.0199 89 144 225
0.5725 -0.0584 1.1237 47 17 24
0.5725 -0.0584 1.1237 24 25 42
0.5971 0.0579 1.1132 247 243 245
